# .PCD v.7 - Point Cloud Data file format
VERSION .7
FIELDS x y z
SIZE 4 4 4
TYPE F F F
COUNT 1 1 1
WIDTH 862
HEIGHT 1
POINTS 862
DATA ascii
404.07430247961145 409.7046363636363 401.6146078565483
402.32783562255844 415.12966666666665 402.25393447863394
403.014624146763 414.9248181818182 401.5506560502131
401.9095595415309 414.8019090909091 402.74188247965736
404.03331237840763 414.71996969696966 401.34737522237504
402.3952380059904 414.5970606060606 401.7936188678155
401.74790614230534 414.4741515151515 403.3990317772712
403.3557688020933 414.3922121212121 401.25883829617175
401.9233395797207 414.26930303030304 402.2990890037821
404.4734762683194 414.1873636363636 401.3464525019735
402.68706877179045 414.0644545454545 401.4681365644271
401.70049267454925 413.94154545454546 402.9663097159818
403.7857218768365 413.85960606060604 401.19541961252565
402.1621520252842 413.73669696969694 401.9364384234561
404.84503717961593 413.65475757575757 401.5714794247516
403.10332475051234 413.53184848484847 401.3407498326631
401.8842155056476 413.40893939393936 402.5696362394048
404.19032924511646 413.327 401.36578171647255
402.56348618574 413.2040909090909 401.7488568588463
401.90569863046414 413.0811818181818 403.23462390655857
403.5408213494811 412.9992424242424 401.46316061205255
402.28046347918985 412.8763333333333 402.3258718319966
402.32876314173075 412.54857575757575 402.9270173850485
405.3022187339948 417.1745757575758 400.8104120986716
404.678624146763 416.8468181818182 400.7396560502131
405.6973123784076 416.6419696969697 400.53637522237506
404.0592380059904 416.51906060606063 400.9826188678155
405.01976880209327 416.3142121212121 400.44783829617177
406.1374762683194 416.10936363636364 400.5354525019735
404.35106877179044 415.98645454545454 400.6571365644271
405.44972187683646 415.78160606060607 400.3844196125257
403.82615202528416 415.65869696969696 401.1254384234561
406.5090371796159 415.5767575757576 400.7604794247516
404.76732475051233 415.4538484848485 400.52974983266313
405.85432924511645 415.249 400.5547817164726
404.22748618573996 415.1260909090909 400.9378568588463
405.2048213494811 414.92124242424245 400.65216061205257
406.112457255492 414.7163939393939 400.9535241478429
404.7141745604781 414.5934848484849 401.02692839602605
405.53330247961145 414.38863636363635 401.0916078565483
405.19311838164094 414.0608787878788 401.62857449219484
404.7612187339948 419.99557575757575 400.5674120986716
404.137624146763 419.6678181818182 400.4966560502131
405.1563123784076 419.46296969696965 400.29337522237506
403.5182380059904 419.3400606060606 400.7396188678155
404.47876880209327 419.1352121212121 400.2048382961718
405.5964762683194 418.9303636363636 400.2924525019735
403.81006877179044 418.8074545454545 400.4141365644271
404.90872187683647 418.60260606060604 400.1414196125257
403.28515202528416 418.47969696969693 400.8824384234561
405.9680371796159 418.39775757575757 400.5174794247516
404.22632475051233 418.27484848484846 400.28674983266313
405.31332924511645 418.07 400.3117817164726
403.68648618573997 417.9470909090909 400.6948568588463
404.6638213494811 417.7422424242424 400.4091606120526
405.571457255492 417.5373939393939 400.71052414784293
404.1731745604781 417.41448484848485 400.78392839602606
404.99230247961145 417.2096363636363 400.8486078565483
404.0005069384295 417.0867272727273 401.34861719890483
406.36062414676303 420.9418181818182 400.4106560502131
407.37931237840763 420.73696969696965 400.20737522237505
405.7412380059904 420.6140606060606 400.6536188678155
406.7017688020933 420.4092121212121 400.11883829617176
407.8194762683194 420.2043636363636 400.2064525019735
406.03306877179045 420.0814545454545 400.3281365644271
407.1317218768365 419.87660606060604 400.05541961252567
406.44932475051235 419.54884848484846 400.2007498326631
407.53632924511646 419.344 400.22578171647257
406.8868213494811 419.0162424242424 400.32316061205256
404.7002187339948 422.5615757575758 400.78441209867157
404.07662414676304 422.2338181818182 400.7136560502131
403.4572380059904 421.90606060606063 400.9566188678155
404.4177688020933 421.7012121212121 400.42183829617176
403.74906877179046 421.37345454545454 400.6311365644271
404.8477218768365 421.16860606060607 400.35841961252567
403.2241520252842 421.04569696969696 401.0994384234561
404.16532475051235 420.8408484848485 400.5037498326631
405.25232924511647 420.636 400.52878171647257
403.62548618574 420.5130909090909 400.9118568588463
404.60282134948113 420.30824242424245 400.62616061205256
406.455938440905 424.69003030303026 401.09403511409124
407.17803464917245 424.6080909090909 400.8162262114791
406.503758289734 424.4851818181818 400.43339336083847
407.1364905051544 424.2803333333333 400.15174815517815
405.94216607138907 424.1574242424242 400.21182737986595
407.8966261590051 424.07548484848485 400.40583626458135
406.6812187339948 423.95257575757574 399.77241209867157
405.37083562255845 423.82966666666664 400.40493447863395
407.61919832174186 423.7477272727273 399.8598586981591
406.05762414676303 423.62481818181817 399.7016560502131
408.38898096796015 423.54287878787875 400.50922539743226
407.07631237840764 423.41996969696964 399.49837522237505
405.4382380059904 423.2970606060606 399.9446188678155
408.0734222142085 423.2151212121212 399.9146319360957
406.3987688020933 423.09221212121207 399.40983829617176
404.9663395797207 422.969303030303 400.4500890037821
407.5164762683194 422.8873636363636 399.4974525019735
405.73006877179046 422.7644545454545 399.6191365644271
408.4082366817848 422.68251515151513 400.19361810087867
406.8287218768365 422.55960606060603 399.34641961252566
405.2051520252842 422.4366969696969 400.0874384234561
407.88803717961594 422.35475757575756 399.7224794247516
406.14632475051235 422.23184848484846 399.4917498326631
407.23332924511647 422.027 399.51678171647256
405.60648618574 421.9040909090909 399.8998568588463
406.5838213494811 421.6992424242424 399.61416061205256
407.49145725549204 421.4943939393939 399.9155241478429
406.09317456047813 421.37148484848484 399.98892839602604
406.91230247961147 421.1666363636363 400.0536078565483
405.9205069384295 421.04372727272727 400.5536171989048
404.676 426.108 402.326
404.376938440905 426.06703030303026 402.05203511409127
404.72588877702714 426.0260606060606 402.8944568826796
405.09903464917244 425.9850909090909 401.7742262114791
403.8895620987839 425.9441212121212 402.46510979135434
405.4254250263663 425.9031515151515 402.8027228572835
404.424758289734 425.8621818181818 401.3913933608385
404.1967975688629 425.8212121212121 403.248675121013
405.71434723358476 425.78024242424243 401.94679725566243
403.59819642738734 425.7392727272727 401.88109835312474
405.0574905051544 425.6573333333333 401.1097481551782
403.5306581268106 425.61636363636364 402.98974902664975
403.86316607138906 425.5344242424242 401.169827379866
405.8176261590051 425.45248484848486 401.3638362645814
403.147648962409 425.4115151515151 402.2627978862685
404.6022187339948 425.32957575757575 400.7304120986716
403.29183562255844 425.20666666666665 401.362934478634
405.54019832174185 425.1247272727273 400.8178586981591
402.9971902276577 425.08375757575755 402.8615861064268
403.978624146763 425.0018181818182 400.65965605021313
402.8735595415309 424.8789090909091 401.8508824796574
404.9973123784076 424.79696969696965 400.4563752223751
403.3592380059904 424.6740606060606 400.90261886781553
405.9944222142085 424.5921212121212 400.87263193609573
402.71190614230534 424.5511515151515 402.50803177727124
404.3197688020933 424.4692121212121 400.3678382961718
402.8873395797207 424.34630303030303 401.40808900378215
405.4374762683194 424.2643636363636 400.4554525019735
403.65106877179045 424.1414545454545 400.5771365644271
404.7497218768365 423.93660606060604 400.3044196125257
403.12615202528417 423.81369696969693 401.0454384234561
404.06732475051234 423.60884848484847 400.44974983266314
403.52748618574 423.2810909090909 400.85785685884633
404.5048213494811 423.0762424242424 400.5721606120526
404.0141745604781 422.74848484848485 400.94692839602607
404.801 427.92600000000004 407.076
404.501938440905 427.8850303030303 406.80203511409127
405.22403464917244 427.80309090909094 406.5242262114791
404.0145620987839 427.76212121212126 407.21510979135434
404.549758289734 427.68018181818184 406.1413933608385
405.83934723358476 427.59824242424247 406.69679725566243
403.72319642738734 427.55727272727273 406.63109835312474
405.1824905051544 427.47533333333337 405.8597481551782
403.6556581268106 427.4343636363637 407.73974902664975
403.98816607138906 427.35242424242426 405.919827379866
405.9426261590051 427.2704848484849 406.1138362645814
403.272648962409 427.22951515151516 407.0127978862685
404.7272187339948 427.1475757575758 405.4804120986716
403.7575966710125 427.1066060606061 408.32634590546945
403.41683562255844 427.0246666666667 406.112934478634
403.1221902276577 426.9017575757576 407.6115861064268
404.103624146763 426.8198181818182 405.40965605021313
402.9985595415309 426.6969090909091 406.6008824796574
403.4842380059904 426.49206060606065 405.65261886781553
402.83690614230534 426.36915151515154 407.25803177727124
403.0123395797207 426.1643030303031 406.15808900378215
402.55483562255847 409.82466666666664 402.41693447863395
404.8031983217419 409.7427272727273 401.8718586981591
402.26019022765774 409.70175757575754 403.91558610642676
403.24162414676306 409.6198181818182 401.7136560502131
402.1365595415309 409.49690909090907 402.9048824796574
404.26031237840766 409.41496969696965 401.51037522237505
402.6222380059904 409.2920606060606 401.9566188678155
401.9749061423054 409.1691515151515 403.5620317772712
403.5827688020933 409.0872121212121 401.42183829617176
402.1503395797207 408.96430303030303 402.4620890037821
404.70047626831945 408.8823636363636 401.5094525019735
402.9140687717905 408.7594545454545 401.6311365644271
401.9274926745493 408.63654545454546 403.12930971598183
404.0127218768365 408.55460606060603 401.35841961252567
402.3891520252842 408.43169696969693 402.0994384234561
405.07203717961596 408.34975757575756 401.7344794247516
401.99938326133383 408.3087878787879 403.82630127916855
403.3303247505124 408.22684848484846 401.5037498326631
402.11121550564764 408.10393939393936 402.7326362394048
404.4173292451165 408.022 401.52878171647257
402.79048618574 407.8990909090909 401.9118568588463
402.1326986304642 407.7761818181818 403.3976239065586
403.76782134948115 407.6942424242424 401.62616061205256
402.5074634791899 407.5713333333333 402.4888718319966
404.67545725549206 407.4893939393939 401.9275241478429
402.4440461025339 407.4484242424242 403.9425453497539
403.27717456047816 407.36648484848484 402.00092839602604
402.5557631417308 407.24357575757574 403.0900173850485
404.0963024796115 407.1616363636363 402.0656078565483
402.97237981827783 407.12066666666664 404.2109325964498
403.10450693842955 407.0387272727273 402.5656171989048
402.98116049162917 406.91581818181817 403.51840319051973
403.756118381641 406.83387878787875 402.60257449219483
403.5992227589562 406.79290909090906 403.98660040765554
403.56917656523615 406.7109696969697 403.21349113555505
403.939 406.66999999999996 403.38
405.803624146763 410.9588181818182 401.5216560502131
406.8223123784076 410.75396969696965 401.31837522237504
406.14476880209327 410.4262121212121 401.22983829617175
407.2624762683194 410.2213636363636 401.3174525019735
405.47606877179044 410.0984545454545 401.4391365644271
406.57472187683646 409.89360606060603 401.16641961252566
404.95115202528416 409.7706969696969 401.9074384234561
407.6340371796159 409.68875757575756 401.5424794247516
405.89232475051233 409.56584848484846 401.3117498326631
406.97932924511645 409.361 401.33678171647256
405.35248618573996 409.2380909090909 401.7198568588463
406.3298213494811 409.0332424242424 401.43416061205255
405.8391745604781 408.70548484848484 401.80892839602603
406.0562187339948 413.8855757575758 401.28241209867156
405.43262414676303 413.5578181818182 401.2116560502131
406.45131237840764 413.3529696969697 401.00837522237504
404.8132380059904 413.23006060606065 401.4546188678155
405.7737688020933 413.0252121212121 400.91983829617175
406.8914762683194 412.82036363636365 401.0074525019735
405.10506877179046 412.69745454545455 401.1291365644271
406.2037218768365 412.4926060606061 400.85641961252566
407.26303717961594 412.2877575757576 401.2324794247516
405.52132475051235 412.1648484848485 401.0017498326631
406.60832924511647 411.96000000000004 401.02678171647256
405.9588213494811 411.63224242424246 401.12416061205255
406.86645725549204 411.42739393939394 401.4255241478429
405.46817456047813 411.3044848484849 401.49892839602603
407.8232187339948 415.81457575757577 400.41241209867155
407.199624146763 415.4868181818182 400.3416560502131
408.21831237840763 415.28196969696967 400.13837522237503
406.5802380059904 415.1590606060606 400.5846188678155
407.5407688020933 414.9542121212121 400.04983829617174
408.6584762683194 414.7493636363636 400.1374525019735
406.87206877179045 414.6264545454545 400.2591365644271
407.9707218768365 414.42160606060605 399.98641961252565
406.3471520252842 414.29869696969695 400.7274384234561
409.03003717961593 414.2167575757576 400.3624794247516
407.28832475051234 414.0938484848485 400.1317498326631
408.37532924511646 413.889 400.15678171647255
406.74848618574 413.7660909090909 400.5398568588463
407.7258213494811 413.56124242424244 400.25416061205254
408.63345725549203 413.3563939393939 400.5555241478429
407.23517456047813 413.23348484848486 400.628928396026
408.05430247961147 413.02863636363634 400.6936078565483
407.71411838164096 412.70087878787876 401.2305744921948
407.3172187339948 418.7005757575758 400.33041209867156
406.69362414676306 418.3728181818182 400.2596560502131
407.71231237840766 418.1679696969697 400.05637522237504
406.0742380059904 418.04506060606064 400.5026188678155
407.0347688020933 417.8402121212121 399.96783829617175
408.15247626831945 417.63536363636365 400.0554525019735
406.3660687717905 417.51245454545455 400.1771365644271
407.4647218768365 417.3076060606061 399.90441961252566
405.8411520252842 417.184696969697 400.6454384234561
406.7823247505124 416.9798484848485 400.0497498326631
407.8693292451165 416.77500000000003 400.07478171647256
406.24248618574 416.65209090909093 400.4578568588463
407.21982134948115 416.44724242424246 400.17216061205255
406.72917456047816 416.1194848484849 400.54692839602603
410.6731983217419 419.7177272727273 399.84385869815907
409.11162414676306 419.5948181818182 399.6856560502131
410.13031237840767 419.3899696969697 399.482375222375
408.49223800599043 419.2670606060606 399.9286188678155
409.4527688020933 419.0622121212121 399.39383829617174
408.0203395797207 418.93930303030305 400.4340890037821
410.57047626831945 418.85736363636363 399.4814525019735
408.7840687717905 418.7344545454545 399.6031365644271
409.8827218768365 418.52960606060606 399.33041961252565
408.2591520252842 418.40669696969695 400.0714384234561
409.2003247505124 418.2018484848485 399.4757498326631
410.2873292451165 417.997 399.50078171647255
408.66048618574 417.8740909090909 399.8838568588463
409.63782134948116 417.66924242424244 399.59816061205254
409.020758289734 422.9191818181818 400.3753933608385
409.6534905051544 422.71433333333334 400.09374815517816
408.45916607138906 422.59142424242424 400.15382737986596
410.4136261590051 422.5094848484849 400.34783626458136
409.1982187339948 422.38657575757577 399.7144120986716
410.13619832174186 422.1817272727273 399.8018586981591
408.574624146763 422.0588181818182 399.6436560502131
410.90598096796015 421.9768787878788 400.45122539743227
409.59331237840763 421.85396969696967 399.44037522237505
407.9552380059904 421.7310606060606 399.8866188678155
410.5904222142085 421.6491212121212 399.8566319360957
408.9157688020933 421.5262121212121 399.35183829617176
410.0334762683194 421.3213636363636 399.4394525019735
408.24706877179045 421.1984545454545 399.5611365644271
409.3457218768365 420.99360606060606 399.2884196125257
407.7221520252842 420.87069696969695 400.0294384234561
410.40503717961593 420.7887575757576 399.6644794247516
408.66332475051234 420.6658484848485 399.4337498326631
409.75032924511646 420.461 399.4587817164726
408.12348618574 420.3380909090909 399.8418568588463
409.1008213494811 420.13324242424244 399.55616061205257
408.61017456047813 419.80548484848487 399.93092839602605
411.603758289734 424.3231818181818 401.48639336083846
412.23649050515445 424.11833333333334 401.20474815517815
412.99662615900513 423.91348484848487 401.45883626458135
411.7812187339948 423.79057575757577 400.82541209867156
412.7191983217419 423.5857272727273 400.9128586981591
411.15762414676306 423.4628181818182 400.7546560502131
413.4889809679602 423.38087878787877 401.56222539743226
412.17631237840766 423.25796969696967 400.55137522237504
413.17342221420853 423.0531212121212 400.9676319360957
411.4987688020933 422.9302121212121 400.46283829617175
412.61647626831945 422.7253636363636 400.5504525019735
410.8300687717905 422.6024545454545 400.6721365644271
411.9287218768365 422.39760606060605 400.39941961252566
412.98803717961596 422.1927575757576 400.7754794247516
411.2463247505124 422.0698484848485 400.5447498326631
412.3333292451165 421.865 400.56978171647256
409.373938440905 425.5640303030303 402.0660351140912
410.09603464917245 425.4820909090909 401.78822621147907
409.421758289734 425.3591818181818 401.40539336083845
410.7113472335848 425.27724242424244 401.9607972556624
410.05449050515443 425.15433333333334 401.12374815517813
408.8601660713891 425.03142424242424 401.18382737986593
410.8146261590051 424.9494848484849 401.37783626458133
409.5992187339948 424.82657575757577 400.74441209867155
410.53719832174187 424.6217272727273 400.83185869815907
408.97562414676304 424.4988181818182 400.6736560502131
411.30698096796016 424.4168787878788 401.48122539743224
409.99431237840764 424.29396969696967 400.470375222375
408.3562380059904 424.1710606060606 400.9166188678155
410.9914222142085 424.0891212121212 400.8866319360957
409.3167688020933 423.9662121212121 400.38183829617174
410.43447626831943 423.7613636363636 400.4694525019735
408.64806877179046 423.6384545454545 400.5911365644271
409.7467218768365 423.43360606060605 400.31841961252564
410.80603717961594 423.2287575757576 400.6944794247516
409.06432475051236 423.1058484848485 400.4637498326631
410.1513292451165 422.901 400.48878171647254
407.474 426.423 402.945
407.174938440905 426.38203030303026 402.67103511409124
407.52388877702714 426.3410606060606 403.5134568826796
407.89703464917244 426.3000909090909 402.3932262114791
406.6875620987839 426.2591212121212 403.0841097913543
407.222758289734 426.1771818181818 402.01039336083846
408.51234723358476 426.09524242424243 402.5657972556624
406.39619642738734 426.0542727272727 402.5000983531247
407.8554905051544 425.9723333333333 401.72874815517815
406.66116607138906 425.8494242424242 401.78882737986595
408.6156261590051 425.76748484848486 401.98283626458135
405.945648962409 425.7265151515151 402.8817978862685
407.4002187339948 425.64457575757575 401.34941209867156
406.08983562255844 425.52166666666665 401.98193447863395
408.33819832174186 425.4397272727273 401.4368586981591
406.776624146763 425.3168181818182 401.2786560502131
407.79531237840763 425.11196969696965 401.07537522237504
407.1177688020933 424.7842121212121 400.98683829617175
408.2354762683194 424.5793636363636 401.0744525019735
409.556 427.37300000000005 404.231
409.256938440905 427.3320303030303 403.95703511409124
409.97903464917243 427.25009090909094 403.6792262114791
409.30475828973397 427.12718181818184 403.29639336083847
408.47819642738733 427.00427272727273 403.7860983531247
409.9374905051544 426.92233333333337 403.01474815517815
408.74316607138906 426.79942424242427 403.07482737986595
409.4822187339948 426.5945757575758 402.63541209867157
408.17183562255843 426.4716666666667 403.26793447863395
410.42019832174185 426.3897272727273 402.7228586981591
408.858624146763 426.2668181818182 402.5646560502131
409.8773123784076 426.0619696969697 402.36137522237505
409.1997688020933 425.7342121212121 402.27283829617176
410.3174762683194 425.52936363636366 402.3604525019735
408.5002187339948 409.7275757575758 401.29241209867155
407.87662414676305 409.3998181818182 401.2216560502131
408.89531237840765 409.1949696969697 401.018375222375
407.2572380059904 409.07206060606063 401.4646188678155
408.2177688020933 408.8672121212121 400.92983829617174
409.33547626831944 408.66236363636364 401.0174525019735
407.5490687717905 408.53945454545453 401.1391365644271
408.6477218768365 408.33460606060606 400.86641961252565
407.0241520252842 408.21169696969696 401.6074384234561
409.70703717961595 408.1297575757576 401.2424794247516
407.96532475051237 408.0068484848485 401.0117498326631
410.3701611871408 407.9249090909091 402.1259767483272
409.0523292451165 407.802 401.03678171647255
407.42548618574 407.6790909090909 401.4198568588463
409.90886038754024 407.59715151515155 401.6409884954356
408.40282134948114 407.47424242424245 401.13416061205254
410.2577302017987 407.392303030303 402.5732005439303
409.31045725549205 407.2693939393939 401.4355241478429
407.91217456047815 407.1464848484849 401.508928396026
409.82508518210665 407.06454545454545 402.14657157119035
408.7313024796115 406.94163636363635 401.5736078565483
407.73950693842954 406.8187272727273 402.0736171989048
409.2323217972505 406.7367878787879 402.0832784579689
408.391118381641 406.6138787878788 402.1105744921948
409.1159283537358 406.5319393939394 402.70926618407185
408.20417656523614 406.4909696969697 402.721491135555
408.574 406.45 402.888
410.9152187339948 411.2155757575758 400.8054120986716
410.291624146763 410.8878181818182 400.7346560502131
411.3103123784076 410.6829696969697 400.53137522237506
409.6722380059904 410.56006060606063 400.9776188678155
410.63276880209327 410.3552121212121 400.4428382961718
411.7504762683194 410.15036363636364 400.5304525019735
409.96406877179044 410.02745454545453 400.6521365644271
411.06272187683646 409.82260606060606 400.3794196125257
409.43915202528416 409.69969696969696 401.1204384234561
412.1220371796159 409.6177575757576 400.7554794247516
410.38032475051233 409.4948484848485 400.52474983266313
411.46732924511645 409.29 400.5497817164726
409.84048618573996 409.1670909090909 400.9328568588463
410.8178213494811 408.96224242424245 400.6471606120526
410.3271745604781 408.6344848484849 401.02192839602606
411.14630247961145 408.42963636363635 401.0866078565483
410.1545069384295 408.3067272727273 401.58661719890483
410.80611838164094 408.1018787878788 401.62357449219485
410.6191765652361 407.9789696969697 402.23449113555506
410.989 407.938 402.401
408.6912187339948 412.72557575757577 401.0234120986716
408.067624146763 412.3978181818182 400.95265605021314
409.0863123784076 412.19296969696967 400.7493752223751
407.4482380059904 412.0700606060606 401.19561886781554
408.4087688020933 411.8652121212121 400.6608382961718
409.5264762683194 411.6603636363636 400.74845250197353
407.74006877179045 411.5374545454545 400.8701365644271
408.8387218768365 411.33260606060605 400.5974196125257
407.21515202528417 411.20969696969695 401.3384384234561
409.8980371796159 411.1277575757576 400.97347942475164
408.15632475051234 411.0048484848485 400.74274983266315
409.24332924511646 410.8 400.7677817164726
407.61648618574 410.6770909090909 401.15085685884634
408.5938213494811 410.47224242424244 400.8651606120526
408.1031745604781 410.14448484848486 401.2399283960261
408.92230247961146 409.93963636363634 401.30460785654833
410.6142187339948 414.52957575757574 400.3274120986716
409.990624146763 414.20181818181817 400.2566560502131
409.3712380059904 413.8740606060606 400.4996188678155
410.3317688020933 413.66921212121207 399.96483829617176
409.66306877179045 413.3414545454545 400.1741365644271
410.7617218768365 413.136606060606 399.9014196125257
409.13815202528417 413.0136969696969 400.6424384234561
411.8210371796159 412.93175757575756 400.2774794247516
410.07932475051234 412.80884848484845 400.0467498326631
411.16632924511646 412.604 400.0717817164726
409.53948618574 412.4810909090909 400.4548568588463
410.5168213494811 412.2762424242424 400.16916061205256
410.0261745604781 411.94848484848484 400.54392839602605
410.84530247961146 411.7436363636363 400.6086078565483
409.156624146763 417.1518181818182 399.8456560502131
410.1753123784076 416.9469696969697 399.64237522237505
408.5372380059904 416.82406060606064 400.0886188678155
409.4977688020933 416.6192121212121 399.55383829617176
410.6154762683194 416.41436363636365 399.6414525019735
408.82906877179045 416.29145454545454 399.7631365644271
409.9277218768365 416.0866060606061 399.49041961252567
408.30415202528417 415.96369696969697 400.2314384234561
410.9870371796159 415.8817575757576 399.8664794247516
409.24532475051234 415.7588484848485 399.6357498326631
410.33232924511645 415.55400000000003 399.66078171647257
408.70548618573997 415.4310909090909 400.0438568588463
409.6828213494811 415.22624242424246 399.75816061205256
410.590457255492 415.02139393939393 400.0595241478429
409.1921745604781 414.8984848484849 400.13292839602605
410.01130247961146 414.69363636363636 400.1976078565483
412.5334905051544 419.16833333333335 399.60574815517816
411.33916607138906 419.04542424242425 399.66582737986596
412.0782187339948 418.8405757575758 399.2264120986716
413.01619832174185 418.6357272727273 399.3138586981591
411.454624146763 418.5128181818182 399.1556560502131
412.4733123784076 418.3079696969697 398.95237522237505
410.8352380059904 418.18506060606063 399.3986188678155
413.4704222142085 418.1031212121212 399.3686319360957
411.7957688020933 417.9802121212121 398.86383829617176
412.9134762683194 417.77536363636364 398.9514525019735
411.12706877179045 417.65245454545453 399.0731365644271
413.8052366817848 417.57051515151517 399.6476181008787
412.2257218768365 417.44760606060606 398.8004196125257
410.60215202528417 417.32469696969696 399.5414384234561
413.2850371796159 417.2427575757576 399.1764794247516
411.54332475051234 417.1198484848485 398.9457498326631
412.63032924511646 416.915 398.9707817164726
411.00348618574 416.7920909090909 399.3538568588463
413.4868603875402 416.71015151515155 399.5749884954356
411.9808213494811 416.58724242424245 399.06816061205257
412.888457255492 416.3823939393939 399.3695241478429
411.4901745604781 416.2594848484849 399.44292839602605
412.30930247961146 416.05463636363635 399.5076078565483
412.28949050515445 421.58433333333335 400.29374815517815
411.0951660713891 421.46142424242424 400.35382737986595
413.04962615900513 421.3794848484849 400.54783626458135
411.8342187339948 421.2565757575758 399.91441209867156
412.7721983217419 421.0517272727273 400.0018586981591
411.21062414676305 420.9288181818182 399.8436560502131
412.22931237840766 420.7239696969697 399.64037522237504
413.2264222142085 420.5191212121212 400.0566319360957
411.5517688020933 420.3962121212121 399.55183829617175
412.66947626831944 420.19136363636363 399.6394525019735
410.8830687717905 420.06845454545453 399.7611365644271
411.9817218768365 419.86360606060606 399.48841961252566
413.04103717961596 419.6587575757576 399.8644794247516
411.29932475051237 419.5358484848485 399.6337498326631
412.3863292451165 419.331 399.65878171647256
414.200758289734 423.1821818181818 401.37839336083846
414.83349050515443 422.9773333333333 401.09674815517815
413.63916607138907 422.8544242424242 401.15682737986594
415.5936261590051 422.77248484848485 401.35083626458135
414.3782187339948 422.64957575757575 400.71741209867156
415.31619832174187 422.4447272727273 400.8048586981591
413.75462414676304 422.3218181818182 400.6466560502131
414.77331237840764 422.11696969696965 400.44337522237504
413.1352380059904 421.9940606060606 400.8896188678155
415.7704222142085 421.9121212121212 400.8596319360957
414.0957688020933 421.7892121212121 400.35483829617175
415.2134762683194 421.5843636363636 400.4424525019735
413.42706877179046 421.4614545454545 400.5641365644271
414.5257218768365 421.25660606060603 400.29141961252566
415.58503717961594 421.05175757575756 400.6674794247516
413.84332475051235 420.92884848484846 400.4367498326631
414.93032924511647 420.724 400.46178171647256
411.81093844090503 426.9530303030303 403.12903511409127
412.53303464917246 426.8710909090909 402.8512262114791
411.858758289734 426.7481818181818 402.4683933608385
413.1483472335848 426.66624242424245 403.02379725566243
411.03219642738736 426.6252727272727 402.95809835312474
412.49149050515445 426.54333333333335 402.1867481551782
411.2971660713891 426.42042424242425 402.246827379866
413.2516261590051 426.3384848484849 402.4408362645814
412.0362187339948 426.2155757575758 401.8074120986716
413.75332617661667 426.13363636363636 403.18189278718114
410.72583562255846 426.0926666666667 402.439934478634
412.9741983217419 426.0107272727273 401.8948586981591
411.41262414676305 425.8878181818182 401.7366560502131
413.74398096796017 425.8058787878788 402.5442253974323
412.43131237840765 425.6829696969697 401.53337522237507
410.7932380059904 425.56006060606063 401.97961886781553
413.4284222142085 425.4781212121212 401.9496319360957
411.7537688020933 425.3552121212121 401.4448382961718
412.87147626831944 425.15036363636364 401.5324525019735
411.0850687717905 425.02745454545453 401.6541365644271
412.1837218768365 424.82260606060606 401.3814196125257
413.24303717961595 424.6177575757576 401.75747942475164
411.50132475051237 424.4948484848485 401.52674983266314
412.5883292451165 424.29 401.5517817164726
417.15903464917244 424.6380909090909 402.6882262114791
416.484758289734 424.5151818181818 402.3053933608385
417.77434723358476 424.43324242424245 402.8607972556624
417.1174905051544 424.31033333333335 402.02374815517817
415.92316607138906 424.18742424242424 402.08382737986597
417.8776261590051 424.1054848484849 402.27783626458137
416.6622187339948 423.9825757575758 401.6444120986716
417.60019832174186 423.7777272727273 401.7318586981591
416.038624146763 423.6548181818182 401.5736560502131
418.36998096796015 423.5728787878788 402.3812253974323
417.05731237840763 423.4499696969697 401.37037522237506
418.0544222142085 423.2451212121212 401.7866319360957
416.3797688020933 423.1222121212121 401.28183829617177
417.4974762683194 422.91736363636363 401.3694525019735
415.71106877179045 422.7944545454545 401.4911365644271
416.8097218768365 422.58960606060606 401.2184196125257
417.86903717961593 422.3847575757576 401.5944794247516
416.12732475051234 422.2618484848485 401.36374983266313
415.81293844090504 427.1570303030303 404.40803511409126
416.5350346491725 427.07509090909093 404.1302262114791
415.860758289734 426.9521818181818 403.7473933608385
416.49349050515445 426.74733333333336 403.4657481551782
415.2991660713891 426.62442424242425 403.525827379866
417.25362615900514 426.5424848484849 403.7198362645814
416.0382187339948 426.4195757575758 403.0864120986716
416.9761983217419 426.2147272727273 403.1738586981591
415.41462414676306 426.0918181818182 403.0156560502131
416.43331237840766 425.8869696969697 402.81237522237507
417.43042221420853 425.6821212121212 403.2286319360957
415.7557688020933 425.5592121212121 402.7238382961718
416.87347626831945 425.35436363636364 402.8114525019735
416.1857218768365 425.02660606060607 402.6604196125257
417.24503717961596 424.8217575757576 403.03647942475163
413.0052187339948 409.90457575757574 400.7544120986716
412.38162414676304 409.57681818181817 400.68365605021313
413.40031237840765 409.37196969696964 400.4803752223751
412.7227688020933 409.04421212121207 400.3918382961718
413.84047626831943 408.8393636363636 400.4794525019735
412.05406877179047 408.7164545454545 400.6011365644271
413.1527218768365 408.511606060606 400.3284196125257
411.5291520252842 408.3886969696969 401.0694384234561
414.21203717961595 408.30675757575756 400.70447942475164
412.47032475051236 408.18384848484845 400.47374983266315
411.2512155056476 408.06093939393935 401.70263623940485
413.5573292451165 407.979 400.4987817164726
411.93048618574 407.8560909090909 400.88185685884633
414.41386038754024 407.7741515151515 401.1029884954356
411.27269863046416 407.7331818181818 402.3676239065586
412.90782134948114 407.6512424242424 400.5961606120526
414.7627302017987 407.569303030303 402.03520054393033
411.64746347918987 407.5283333333333 401.45887183199665
413.81545725549205 407.4463939393939 400.89752414784294
412.41717456047814 407.32348484848484 400.97092839602607
414.33008518210664 407.2415454545454 401.6085715711904
411.69576314173077 407.20057575757573 402.0600173850485
413.87775640627024 407.15960606060605 403.4629102252501
413.2363024796115 407.1186363636363 401.0356078565483
414.3006344039823 407.03669696969695 402.3885834824607
412.24450693842954 406.99572727272727 401.53561719890484
413.14083212802075 406.9547575757575 403.45369220652805
413.7373217972505 406.91378787878784 401.54527845796895
412.12116049162915 406.87281818181816 402.48840319051976
413.8130024542829 406.8318484848485 402.8501429294786
412.896118381641 406.79087878787874 401.57257449219486
412.7392227589562 406.74990909090906 402.95660040765557
413.6209283537358 406.7089393939394 402.1712661840719
412.70917656523613 406.6679696969697 402.1834911355551
413.079 406.62699999999995 402.35
415.2902187339948 411.65457575757574 399.76041209867157
414.666624146763 411.32681818181817 399.6896560502131
415.6853123784076 411.12196969696964 399.48637522237505
414.0472380059904 410.9990606060606 399.9326188678155
416.6824222142085 410.9171212121212 399.9026319360957
415.00776880209327 410.79421212121207 399.39783829617176
416.1254762683194 410.5893636363636 399.4854525019735
414.33906877179044 410.4664545454545 399.6071365644271
417.01723668178477 410.38451515151513 400.18161810087867
415.43772187683646 410.261606060606 399.33441961252566
413.81415202528416 410.1386969696969 400.0754384234561
416.4970371796159 410.05675757575756 399.7104794247516
414.75532475051233 409.93384848484845 399.4797498326631
417.1601611871408 409.8519090909091 400.59397674832724
413.5362155056476 409.81093939393935 400.7086362394048
415.84232924511645 409.729 399.50478171647256
414.21548618573996 409.6060909090909 399.8878568588463
416.6988603875402 409.5241515151515 400.1089884954356
415.1928213494811 409.4012424242424 399.60216061205256
417.0477302017987 409.319303030303 401.0412005439303
413.93246347918983 409.2783333333333 400.4648718319966
416.100457255492 409.1963939393939 399.9035241478429
414.7021745604781 409.07348484848484 399.97692839602604
416.6150851821066 408.9915454545454 400.61457157119037
415.52130247961145 408.8686363636363 400.0416078565483
414.5295069384295 408.74572727272727 400.5416171989048
416.02232179725047 408.66378787878784 400.5512784579689
415.18111838164094 408.54087878787874 400.57857449219483
415.90592835373576 408.4589393939394 401.17726618407187
414.9941765652361 408.4179696969697 401.18949113555504
412.6342187339948 413.01457575757576 400.1204120986716
412.01062414676306 412.6868181818182 400.0496560502131
413.02931237840767 412.48196969696966 399.84637522237506
412.3517688020933 412.1542121212121 399.75783829617177
413.46947626831945 411.9493636363636 399.8454525019735
411.6830687717905 411.8264545454545 399.9671365644271
412.7817218768365 411.62160606060604 399.6944196125257
411.1581520252842 411.49869696969694 400.4354384234561
413.84103717961597 411.4167575757576 400.0704794247516
412.0993247505124 411.29384848484847 399.83974983266313
413.1863292451165 411.089 399.8647817164726
411.55948618574 410.9660909090909 400.2478568588463
412.53682134948116 410.7612424242424 399.96216061205257
413.44445725549207 410.5563939393939 400.26352414784293
412.04617456047816 410.43348484848485 400.33692839602605
412.8653024796115 410.2286363636363 400.4016078565483
414.5192187339948 414.66357575757576 399.67641209867156
415.4571983217419 414.4587272727273 399.7638586981591
413.89562414676305 414.3358181818182 399.6056560502131
414.91431237840766 414.13096969696966 399.40237522237504
415.9114222142085 413.9261212121212 399.8186319360957
414.2367688020933 413.8032121212121 399.31383829617175
415.35447626831944 413.5983636363636 399.4014525019735
413.5680687717905 413.4754545454545 399.5231365644271
414.6667218768365 413.27060606060604 399.25041961252566
413.0431520252842 413.14769696969694 399.9914384234561
413.98432475051237 412.94284848484847 399.3957498326631
415.0713292451165 412.738 399.42078171647256
413.44448618574 412.6150909090909 399.8038568588463
414.42182134948115 412.4102424242424 399.51816061205255
415.32945725549206 412.2053939393939 399.8195241478429
413.93117456047815 412.08248484848485 399.89292839602604
414.7503024796115 411.8776363636363 399.9576078565483
413.3391983217419 415.8527272727273 399.6128586981591
411.77762414676306 415.7298181818182 399.4546560502131
412.79631237840766 415.52496969696966 399.25137522237503
411.1582380059904 415.4020606060606 399.6976188678155
412.1187688020933 415.1972121212121 399.16283829617174
413.23647626831945 414.9923636363636 399.2504525019735
411.4500687717905 414.8694545454545 399.3721365644271
412.5487218768365 414.66460606060605 399.09941961252565
410.9251520252842 414.54169696969694 399.8404384234561
413.60803717961596 414.4597575757576 399.4754794247516
411.8663247505124 414.3368484848485 399.2447498326631
412.9533292451165 414.132 399.26978171647255
411.32648618574 414.0090909090909 399.6528568588463
412.30382134948115 413.80424242424243 399.36716061205254
413.21145725549206 413.5993939393939 399.6685241478429
411.81317456047816 413.47648484848486 399.741928396026
412.6323024796115 413.27163636363633 399.8066078565483
414.8592187339948 417.5185757575758 399.33341209867154
415.79719832174186 417.3137272727273 399.42085869815907
414.23562414676303 417.1908181818182 399.2626560502131
415.25431237840763 416.9859696969697 399.059375222375
413.6162380059904 416.8630606060606 399.5056188678155
416.2514222142085 416.7811212121212 399.4756319360957
414.5767688020933 416.6582121212121 398.97083829617173
415.6944762683194 416.45336363636363 399.0584525019735
413.90806877179045 416.33045454545453 399.1801365644271
415.0067218768365 416.12560606060606 398.90741961252564
413.3831520252842 416.00269696969696 399.64843842345607
416.06603717961593 415.9207575757576 399.2834794247516
414.32432475051235 415.7978484848485 399.0527498326631
415.41132924511646 415.593 399.07778171647254
413.78448618574 415.4700909090909 399.4608568588463
414.7618213494811 415.26524242424244 399.17516061205254
415.66945725549203 415.0603939393939 399.4765241478429
414.27117456047813 414.93748484848487 399.549928396026
415.09030247961147 414.73263636363635 399.6146078565483
414.168758289734 420.49518181818183 400.3583933608385
414.80149050515445 420.29033333333336 400.07674815517817
413.6071660713891 420.16742424242426 400.13682737986596
415.56162615900513 420.0854848484849 400.33083626458136
414.3462187339948 419.9625757575758 399.6974120986716
415.2841983217419 419.7577272727273 399.7848586981591
413.72262414676305 419.6348181818182 399.6266560502131
416.0539809679602 419.5528787878788 400.4342253974323
414.74131237840766 419.4299696969697 399.42337522237506
413.1032380059904 419.30706060606065 399.8696188678155
415.7384222142085 419.2251212121212 399.8396319360957
414.0637688020933 419.1022121212121 399.33483829617177
415.18147626831944 418.89736363636365 399.4224525019735
413.3950687717905 418.77445454545455 399.5441365644271
416.0732366817848 418.6925151515152 400.1186181008787
414.4937218768365 418.5696060606061 399.2714196125257
415.55303717961596 418.3647575757576 399.6474794247516
413.81132475051237 418.2418484848485 399.41674983266313
414.8983292451165 418.03700000000003 399.4417817164726
414.24882134948115 417.70924242424246 399.53916061205257
416.979758289734 422.1881818181818 401.23239336083844
417.6124905051544 421.98333333333335 400.95074815517813
416.41816607138907 421.86042424242424 401.01082737986593
418.3726261590051 421.7784848484849 401.20483626458133
417.1572187339948 421.6555757575758 400.57141209867154
418.09519832174186 421.4507272727273 400.65885869815907
416.53362414676303 421.3278181818182 400.5006560502131
417.55231237840763 421.1229696969697 400.297375222375
415.9142380059904 421.00006060606063 400.7436188678155
418.5494222142085 420.9181212121212 400.7136319360957
416.8747688020933 420.7952121212121 400.20883829617173
417.9924762683194 420.59036363636363 400.2964525019735
416.20606877179046 420.46745454545453 400.4181365644271
418.8842366817848 420.38551515151516 400.99261810087864
417.3047218768365 420.26260606060606 400.14541961252564
418.36403717961593 420.0577575757576 400.5214794247516
416.62232475051235 419.9348484848485 400.2907498326631
417.70932924511646 419.73 400.31578171647254
414.135938440905 425.88903030303027 403.16803511409125
414.85803464917245 425.8070909090909 402.8902262114791
414.183758289734 425.6841818181818 402.5073933608385
414.81649050515443 425.47933333333333 402.22574815517817
415.5766261590051 425.27448484848486 402.47983626458137
414.3612187339948 425.15157575757576 401.8464120986716
415.29919832174187 424.9467272727273 401.9338586981591
413.73762414676304 424.8238181818182 401.7756560502131
416.06898096796016 424.74187878787876 402.5832253974323
414.75631237840764 424.61896969696966 401.57237522237506
415.7534222142085 424.4141212121212 401.9886319360957
414.0787688020933 424.2912121212121 401.48383829617177
415.19647626831943 424.0863636363636 401.5714525019735
413.41006877179046 423.9634545454545 401.6931365644271
414.5087218768365 423.75860606060604 401.4204196125257
415.56803717961594 423.5537575757576 401.7964794247516
413.82632475051236 423.43084848484847 401.56574983266313
418.514758289734 425.7581818181818 403.66639336083847
419.8043472335848 425.67624242424245 404.2217972556624
419.14749050515445 425.55333333333334 403.38474815517816
420.10393208505394 425.4713939393939 404.8951406157046
417.9531660713891 425.43042424242424 403.44482737986596
419.90762615900513 425.3484848484849 403.63883626458136
418.6922187339948 425.22557575757577 403.00541209867157
420.4093261766167 425.14363636363635 404.3798927871811
419.6301983217419 425.0207272727273 403.0928586981591
420.3863050756313 424.9387878787879 405.3496220423836
418.06862414676306 424.8978181818182 402.9346560502131
420.3999809679602 424.8158787878788 403.74222539743226
419.08731237840766 424.69296969696967 402.73137522237505
420.6854355256864 424.6110303030303 404.76002130978674
420.08442221420853 424.4881212121212 403.1476319360957
418.4097688020933 424.3652121212121 402.64283829617176
420.69929781912793 424.28327272727273 404.0711632198218
419.52747626831945 424.1603636363636 402.7304525019735
420.4192366817848 423.95551515151516 403.42661810087867
418.8397218768365 423.83260606060605 402.57941961252567
420.77881322637313 423.7506666666667 404.4980835065384
419.89903717961596 423.6277575757576 402.9554794247516
420.5621611871408 423.4229090909091 403.83897674832724
418.063 428.209 405.62
417.763938440905 428.16803030303026 405.34603511409125
418.11288877702714 428.1270606060606 406.1884568826796
418.48603464917244 428.0860909090909 405.0682262114791
418.8124250263663 428.0041515151515 406.0967228572835
417.811758289734 427.9631818181818 404.6853933608385
419.10134723358476 427.88124242424243 405.2407972556624
418.5810430347842 427.799303030303 406.72702787508877
418.4444905051544 427.7583333333333 404.40374815517816
419.4009320850539 427.6763939393939 405.9141406157046
417.25016607138906 427.6354242424242 404.46382737986596
419.2046261590051 427.55348484848486 404.65783626458136
419.1718766663773 427.47154545454543 406.7234803888226
417.9892187339948 427.43057575757575 404.0244120986716
419.70632617661664 427.34863636363633 405.3988927871811
416.67883562255844 427.30766666666665 404.65693447863396
418.92719832174186 427.2257272727273 404.1118586981591
419.68330507563127 427.14378787878786 406.3686220423836
417.365624146763 427.1028181818182 403.9536560502131
419.69698096796014 427.02087878787876 404.76122539743227
419.0803374759327 426.9389393939394 407.20219352014146
418.3843123784076 426.89796969696965 403.75037522237506
419.98243552568636 426.8160303030303 405.77902130978674
419.3814222142085 426.6931212121212 404.1666319360957
417.7067688020933 426.5702121212121 403.66183829617177
419.9962978191279 426.4882727272727 405.0901632198218
418.8244762683194 426.3653636363636 403.7494525019735
419.7162366817848 426.16051515151514 404.4456181008787
418.1367218768365 426.03760606060604 403.5984196125257
420.0758132263731 425.9556666666667 405.5170835065384
417.91319832174185 413.7817272727273 399.5148586981591
416.351624146763 413.6588181818182 399.35665605021313
417.3703123784076 413.4539696969697 399.1533752223751
416.69276880209327 413.1262121212121 399.0648382961718
417.8104762683194 412.92136363636365 399.1524525019735
416.02406877179044 412.79845454545455 399.2741365644271
417.12272187683647 412.5936060606061 399.0014196125257
418.1820371796159 412.3887575757576 399.37747942475164
416.44032475051233 412.2658484848485 399.14674983266315
417.52732924511645 412.06100000000004 399.1717817164726
415.90048618573996 411.93809090909093 399.55485685884634
418.3838603875402 411.85615151515157 399.7759884954356
416.8778213494811 411.73324242424246 399.2691606120526
418.7327302017987 411.65130303030304 400.70820054393033
417.785457255492 411.52839393939394 399.57052414784295
416.3871745604781 411.4054848484849 399.64392839602607
418.3000851821066 411.32354545454547 400.2815715711904
417.20630247961145 411.20063636363636 399.7086078565483
417.7073217972505 410.9957878787879 400.21827845796895
419.95749050515445 415.20233333333334 399.4917481551782
418.7631660713891 415.07942424242424 399.551827379866
420.71762615900514 414.9974848484849 399.7458362645814
419.5022187339948 414.87457575757577 399.1124120986716
421.2193261766167 414.79263636363635 400.48689278718115
420.4401983217419 414.6697272727273 399.1998586981591
418.87862414676306 414.5468181818182 399.04165605021313
421.2099809679602 414.4648787878788 399.8492253974323
419.89731237840766 414.34196969696967 398.8383752223751
421.4954355256864 414.2600303030303 400.86702130978676
418.2592380059904 414.2190606060606 399.28461886781554
420.89442221420853 414.1371212121212 399.25463193609573
419.2197688020933 414.0142121212121 398.7498382961718
421.50929781912794 413.93227272727273 400.17816321982184
420.33747626831945 413.8093636363636 398.83745250197353
421.5115094275104 413.72742424242426 401.30473824293585
418.5510687717905 413.6864545454545 398.9591365644271
421.2292366817848 413.60451515151516 399.5336181008787
419.6497218768365 413.48160606060605 398.6864196125257
421.58881322637313 413.3996666666667 400.60508350653845
420.70903717961596 413.2767575757576 399.06247942475164
421.30033193964067 413.19481818181816 401.6849375441864
418.9673247505124 413.1538484848485 398.83174983266315
421.3721611871408 413.0719090909091 399.94597674832727
420.0543292451165 412.949 398.8567817164726
421.4313940285389 412.8670606060606 401.017555930289
418.42748618574 412.8260909090909 399.23985685884634
420.91086038754025 412.74415151515154 399.46098849543563
419.40482134948115 412.62124242424244 398.9541606120526
